636239.47,849878.22,463.39
636218.21,849995.70,440.62
636199.74,850096.23,427.99
636190.16,850139.73,428.41
636185.60,850150.56,427.33
636181.89,850158.07,466.31
636175.79,850178.90,440.49
636174.02,850172.90,443.57
636173.00,850162.47,427.43
636190.49,850033.23,496.92
636211.75,849878.64,407.55
636269.26,849488.78,408.50
636208.50,849859.51,407.74
636184.25,849999.02,466.37
636165.78,850101.67,497.74
636141.70,850239.24,426.44
636127.49,850314.40,425.82
636107.48,850426.48,425.00
636098.95,850465.35,424.84
636108.33,850383.89,425.52
636125.30,850258.04,426.51
636141.90,850134.15,426.84
636161.22,849994.55,425.30
636195.41,849759.12,410.10
636217.49,849597.11,408.53
636165.12,849916.34,411.75
636144.91,850027.76,484.51
636127.17,850127.46,427.03
636088.42,850361.71,426.44
636071.62,850448.59,425.92
636087.04,850332.55,426.48
636113.32,850146.95,426.57
636123.10,850067.16,428.81
636140.72,849938.75,416.73
636173.16,849713.48,410.43
636183.53,849630.31,407.64
636205.94,849470.18,407.94
636205.18,849456.04,407.94
636206.14,849433.33,407.35
636175.16,849616.96,407.58
636155.12,849728.58,421.13
636123.46,849913.02,489.11
636110.53,849983.79,424.80
636092.13,850086.02,428.31
636059.55,850281.04,426.61
636035.27,850422.28,425.82
636031.63,850424.54,425.89
636040.39,850351.48,426.57
636050.03,850272.11,426.48
636066.70,850146.19,426.80
636077.53,850055.97,460.50
636086.52,849981.96,424.70
636094.62,849913.16,407.45
636129.49,849666.60,411.45
636135.66,849602.49,407.48
636083.66,849919.78,441.44
636063.71,850032.02,433.37
636021.29,850290.65,426.77
635994.19,850448.52,425.98
636001.02,850375.39,426.15
636010.40,850290.85,426.61
636023.75,850179.43,426.38
636041.99,850033.14,429.20
636050.13,849954.79,423.79
636080.15,849731.76,409.88
636090.42,849630.15,409.68
636041.60,849922.83,442.16
636014.67,850071.36,488.09
635975.49,850308.33,426.12
635949.02,850456.40,426.31
635944.32,850451.87,427.53
635957.25,850335.50,426.67
635969.65,850223.46,426.25
635978.71,850133.17,426.15
635988.75,850032.41,475.62
636004.56,849900.79,407.19
636037.20,849652.79,409.48
636068.31,849409.61,407.38
636023.20,849671.42,475.69
636009.74,849733.17,413.19
635985.40,849861.38,407.41
635968.96,849937.40,462.01
635956.53,849988.94,425.59
635955.77,849962.57,418.14
635957.02,849924.44,407.38
635950.26,849934.71,486.58
635950.69,849904.56,406.92
635963.91,849788.35,407.22
635964.14,849757.28,412.70
635966.57,849710.20,482.81
635962.89,849703.90,521.92
635956.33,849717.09,479.82
635942.29,849778.71,408.40
635911.52,849947.38,408.53
635879.86,850122.41,425.72
635843.70,850325.30,425.30
635826.61,850406.10,426.28
635819.16,850424.31,426.64
635812.89,850434.42,434.02
635809.38,850427.46,425.98
635794.42,850492.52,437.27
635787.37,850497.01,439.73
635791.67,850447.28,434.09
635794.00,850400.00,425.75
635788.65,850402.72,425.66
635777.26,850443.37,425.33
635780.15,850391.08,425.23
635786.55,850315.81,433.60
635796.95,850212.86,424.90
635810.99,850086.45,425.46
635821.82,849979.82,419.42
635822.60,849938.12,407.22
635840.65,849783.20,408.99
635848.59,849694.26,413.19
635885.83,849413.02,410.86
635879.56,849420.47,409.65
635834.78,849683.83,453.54
635819.09,849745.70,431.43
635798.62,849840.39,407.32
635790.78,849852.03,407.19
635775.62,849912.70,406.96
635764.99,849960.63,536.58
635743.80,850046.62,424.44
635726.87,850120.80,425.07
635709.97,850193.90,425.23
635693.64,850266.21,436.81
635671.85,850371.46,424.48
635668.90,850350.66,424.93
635680.97,850227.79,425.23
635681.50,850183.14,424.97
635669.23,850225.82,425.23
635673.46,850157.55,435.73
635701.28,849938.62,502.40
635721.95,849735.60,411.02
635710.70,849755.35,415.52
635641.90,850161.12,423.85
635717.98,849577.89,406.99
635618.96,850200.69,440.49
635727.40,849415.42,502.13
635622.41,850054.92,423.00
635650.30,849806.43,407.97
635698.65,849415.88,423.92
635648.26,849697.74,408.69
635675.95,849427.72,408.99
635612.70,849792.32,410.70
635648.16,849420.90,420.60
635614.57,849392.13,421.88
635656.14,850473.36,424.84
635680.41,850481.14,424.64
635666.47,850369.46,430.84
635620.24,850167.75,445.67
635650.95,850244.03,424.93
635649.51,850213.68,425.26
635615.68,850073.23,446.56
635670.54,850242.55,424.97
635722.87,850411.48,424.38
635681.82,850243.86,429.82
635651.21,850112.99,435.60
635653.38,850098.65,435.66
635680.68,850170.83,424.97
635694.52,850196.10,425.13
635712.01,850236.52,437.34
635736.91,850300.66,424.34
635776.80,850421.95,433.23
635755.74,850328.84,424.93
635691.73,850085.01,483.53
635810.20,850481.66,425.95
635694.42,850057.74,504.66
635801.67,850414.04,425.85
635717.75,850096.85,461.61
635778.61,850291.77,425.00
635769.42,850249.18,475.85
635742.81,850120.87,425.36
635837.17,850445.57,426.51
635791.04,850257.45,425.75
635746.95,850068.27,424.74
635776.12,850153.64,425.75
635818.04,850285.50,424.97
635872.08,850464.01,425.89
635881.14,850473.69,426.35
635879.49,850443.57,426.51
635878.35,850414.40,426.41
635867.13,850346.82,425.56
635849.11,850252.89,425.56
635836.15,850175.98,425.10
635845.67,850185.70,425.30
635865.91,850244.49,474.31
635870.51,850236.06,493.83
635875.30,850214.57,425.89
635873.59,850177.40,425.20
635865.42,850114.57,424.70
635872.15,850110.43,424.54
635898.33,850184.48,425.72
635897.90,850151.64,425.26
635881.50,850065.35,479.79
635903.05,850109.81,425.10
635912.20,850117.06,425.26
635911.42,850094.03,471.13
635911.22,850067.13,484.25
635918.83,850071.33,494.62
635936.29,850105.64,444.49
635944.13,850106.92,425.43
635955.54,850127.43,426.31
635971.95,850168.37,426.05
635988.62,850211.32,425.89
636000.75,850237.17,426.44
636011.94,850259.58,426.90
636028.48,850304.07,426.41
636046.92,850355.81,426.31
636053.81,850360.93,426.71
636064.21,850379.99,426.48
636082.58,850430.48,425.75
636097.05,850465.03,424.97
636095.70,850434.35,425.43
636095.21,850407.09,425.72
636079.56,850318.18,426.57
636051.80,850179.23,426.41
636030.31,850078.31,498.06
636021.03,850004.56,428.74
636057.19,850127.33,427.17
636079.95,850196.00,426.87
636078.94,850168.04,426.51
636098.16,850224.90,426.87
636114.47,850271.65,426.51
636136.32,850342.78,425.33
636164.44,850441.90,423.46
636148.72,850367.45,424.87
636098.13,850146.85,426.64
636073.23,850044.06,489.73
636115.91,850200.30,426.67
636167.95,850405.09,422.97
636158.30,850360.66,424.31
636107.15,850145.18,426.64
636077.30,850017.72,426.21
636096.36,850091.90,428.84
636138.85,850261.68,426.12
636193.11,850481.27,426.48
636146.59,850286.15,425.98
636101.05,850095.96,439.60
636100.82,850090.78,446.95
636169.62,850361.81,423.56
636144.91,850255.35,426.02
636097.77,850054.17,429.13
636112.37,850102.07,427.72
636196.75,850433.96,425.85
636110.40,850070.77,428.51
636131.73,850141.04,426.71
636186.12,850347.41,423.59
636111.02,850031.17,455.71
636200.33,850368.57,423.62
636133.76,850091.54,458.60
636159.12,850173.49,427.00
636198.85,850318.80,423.72
636135.60,850052.53,505.94
636218.77,850362.86,432.12
636148.43,850073.65,428.44
636239.57,850418.54,430.87
636150.59,850057.97,427.30
636260.60,850481.63,435.66
636168.47,850106.63,446.98
636188.98,850176.41,426.87
636228.94,850319.85,424.57
636167.72,850072.21,429.43
636191.57,850156.82,425.82
636256.23,850401.15,431.20
636216.31,850233.33,424.11
636174.51,850064.73,488.39
636204.95,850174.84,468.73
636276.21,850439.76,430.54
636208.89,850171.98,449.25
636180.48,850054.46,482.25
636212.99,850173.82,426.38
636292.52,850470.57,431.10
636211.75,850152.10,424.61
636199.61,850097.74,494.16
636253.54,850299.48,439.50
636253.58,850288.48,450.30
636210.01,850113.52,477.79
636215.19,850125.36,465.94
636261.84,850298.62,446.56
636257.68,850271.36,433.37
636221.88,850124.64,512.27
636223.46,850121.59,535.14
636253.05,850231.43,425.07
636302.40,850409.06,432.09
636246.59,850184.71,518.37
636218.73,850072.47,424.61
636263.29,850233.40,504.49
636326.74,850470.64,432.58
636270.44,850241.31,482.64
636236.68,850107.02,428.38
636231.53,850077.79,460.33
636266.80,850205.38,424.80
636341.14,850475.36,432.94
636266.86,850179.63,507.19
636230.09,850033.83,449.87
636265.72,850160.30,425.56
636350.82,850469.29,433.10
636268.01,850144.29,444.19
636257.97,850096.78,426.80
636362.47,850478.94,433.27
636251.21,850045.41,425.92
636349.57,850401.05,433.99
636271.75,850084.97,534.45
636367.75,850436.78,434.09
636280.18,850081.17,540.09
636351.02,850333.60,434.15
636297.21,850111.25,430.54
636313.58,850146.88,427.53
636395.37,850438.29,433.99
636317.19,850111.61,427.20
636327.43,850120.24,458.79
636382.87,850313.42,434.12
636340.09,850122.41,458.43
636349.21,850139.96,430.18
636383.92,850244.75,434.09
636355.38,850116.31,444.09
636378.41,850177.20,434.38
636385.73,850185.50,434.58
636383.69,850150.03,458.07
636378.90,850114.50,431.07
636411.02,850211.12,434.48
636403.12,850163.29,435.24
636390.62,850089.99,428.58
636456.04,850322.18,434.02
636397.44,850073.65,463.68
636476.08,850356.56,434.22
636400.39,850043.70,425.95
636479.36,850320.87,434.58
636464.01,850245.93,437.24
636425.13,850072.87,533.56
636438.94,850105.22,480.05
636470.60,850203.97,437.27
636530.68,850409.58,435.24
636490.42,850242.49,436.22
636445.54,850050.79,523.62
636545.01,850409.78,435.10
636454.59,850055.38,450.26
636542.68,850370.41,436.06
636461.45,850052.69,430.45
636542.78,850342.09,436.25
636472.77,850067.03,440.91
636530.91,850269.42,437.47
636498.85,850137.76,441.54
636493.01,850100.62,442.55
636585.86,850435.60,435.66
636515.58,850158.07,441.27
636495.01,850061.91,539.99
636511.61,850113.45,443.47
636549.57,850237.73,439.01
636587.20,850359.91,436.84
636578.71,850318.11,437.47
636510.73,850052.46,475.82
636550.49,850183.50,441.47
636615.91,850409.84,436.19
636518.31,850038.91,444.82
636576.31,850231.43,439.93
636584.02,850246.85,439.80
636531.33,850036.02,516.96
636605.91,850288.29,438.75
636615.29,850309.02,438.71
636553.12,850068.01,445.67
636567.45,850101.02,445.24
636623.69,850281.14,440.06
636679.66,850466.57,436.68
636622.18,850242.32,441.17
636578.02,850065.32,446.92
636578.90,850048.88,446.82
636595.11,850085.40,446.49
636616.73,850140.06,444.69
636637.20,850190.42,443.21
636676.57,850308.10,440.49
636717.98,850439.86,437.43
636669.13,850243.11,441.73
636636.75,850105.18,445.93
636629.27,850053.58,498.20
636657.25,850132.81,445.34
636710.93,850300.56,440.78
636756.86,850447.67,437.93
636726.08,850314.14,441.01
636698.23,850190.55,443.60
636673.26,850075.98,465.91
636668.27,850036.71,449.93
636693.67,850103.87,446.06
636725.10,850192.36,444.09
636766.86,850318.08,441.60
636804.99,850430.54,439.27
636795.21,850377.33,440.42
636783.37,850308.37,442.68
636776.05,850255.05,443.04
636772.80,850217.03,443.50
636763.62,850157.41,444.59
636756.63,850106.07,446.06
636741.11,850023.00,448.16
636772.80,850116.99,445.70
636824.05,850283.56,443.44
636859.94,850393.60,440.81
636838.45,850297.60,442.78
636780.45,850056.00,483.23
636811.02,850151.87,445.11
636880.77,850400.10,440.42
636796.26,850060.73,446.62
636824.57,850148.06,445.14
636861.75,850274.84,444.06
636807.41,850050.52,447.70
636913.29,850439.40,438.91
636810.96,850032.74,445.05
636890.42,850318.64,442.52
636842.09,850123.52,445.57
636843.41,850113.02,445.60
636897.47,850308.99,442.45
636824.28,850016.67,432.15
636923.92,850379.36,441.60
636842.95,850053.94,504.04
636940.75,850416.80,440.45
636841.31,850025.39,437.14
636955.45,850449.93,439.01
636852.89,850040.98,432.28
636891.14,850173.29,444.72
636904.95,850208.14,444.52
636873.10,850066.63,512.37
636940.16,850317.19,442.62
636945.05,850315.55,442.68
636886.12,850077.26,437.43
636886.19,850063.81,429.76
636953.38,850305.09,442.88
636969.95,850344.98,448.23
636911.94,850106.79,473.46
636898.06,850042.98,426.74
636953.90,850237.80,444.32
637016.40,850451.28,433.27
636988.71,850330.31,442.36
636968.18,850237.76,444.49
636955.05,850168.27,498.69
636944.46,850118.24,428.74
636937.99,850074.67,482.15
636928.12,850025.72,427.07
636936.98,850040.49,437.04
636957.41,850097.05,487.60
636960.24,850095.44,429.23
636969.09,850108.04,498.49
636973.49,850108.99,496.39
636989.27,850156.23,426.67
637005.38,850198.82,444.72
637020.77,850236.78,491.80
637037.86,850285.01,473.36
637053.94,850330.91,426.54
637072.83,850380.09,493.44
637073.95,850359.58,468.54
637021.33,850150.92,490.68
637007.22,850083.37,419.91
637092.91,850373.23,440.16
637081.66,850303.87,450.95
637066.31,850232.28,423.13
637067.55,850216.67,482.48
637061.45,850179.23,441.21
637059.32,850152.49,507.84
637046.00,850091.04,419.16
637032.58,850026.02,425.39
637040.03,850034.78,425.92
637080.64,850163.88,419.49
637128.51,850319.16,426.54
637157.74,850398.26,471.88
637100.82,850180.41,419.26
637060.37,850018.01,423.10
637127.89,850243.90,419.36
637174.28,850384.19,435.53
637100.95,850106.30,425.07
637097.21,850072.70,509.15
637179.40,850349.21,422.18
637122.97,850120.70,421.92
637124.15,850105.74,423.49
637140.55,850135.56,478.77
637175.13,850239.07,463.35
637148.52,850118.21,469.65
637197.77,850275.59,424.54
637138.52,850034.97,423.33
637182.02,850166.83,481.36
637167.65,850097.31,427.07
637166.24,850064.96,487.89
637191.77,850129.92,432.84
637183.83,850060.24,429.92
637196.95,850031.10,465.75
638863.58,849341.83,424.48
638865.06,849245.51,425.66
638831.69,849354.13,423.62
638825.56,849336.15,424.44
638826.12,849286.19,425.00
638823.62,849263.68,425.10
638836.06,849166.44,425.43
638838.22,849123.23,425.16
638806.73,849255.81,424.90
638784.94,849337.07,424.11
638787.20,849297.11,424.61
638818.90,849105.05,425.13
638841.57,848968.54,424.11
638767.55,849319.36,424.44
638786.35,849196.75,424.61
638810.56,849054.23,425.43
638744.06,849364.07,422.87
638799.08,849058.30,425.39
638774.41,849164.21,424.74
638739.76,849320.70,474.64
638781.66,849073.10,425.16
638791.63,849003.08,425.36
638725.56,849314.70,468.18
638746.46,849177.07,423.75
638767.91,849050.20,425.03
638703.48,849348.65,423.56
638765.62,849011.15,425.46
638734.48,849149.38,423.95
638702.76,849284.94,423.72
638778.74,848886.45,424.48
638687.60,849319.36,423.59
638741.99,849033.76,497.34
638699.15,849221.46,423.29
638723.95,849081.99,487.30
638717.91,849085.56,425.00
638663.16,849335.24,423.62
638717.68,849031.53,424.31
638701.41,849091.77,424.08
638646.62,849336.38,423.72
638655.31,849261.25,423.59
638688.12,849060.79,425.43
638704.00,848955.25,423.10
638652.30,849181.53,424.80
638612.66,849346.19,423.95
638622.87,849260.10,423.79
638660.37,849032.84,426.54
638654.69,849035.40,426.77
638597.11,849291.86,423.43
638595.70,849263.48,423.82
638631.00,849044.06,426.18
638635.10,848995.73,424.70
638573.52,849273.75,424.11
638572.05,849245.77,423.92
638624.38,848949.25,423.49
638555.71,849265.26,424.34
638534.81,849336.91,425.13
638561.25,849158.69,424.48
638600.95,848909.74,422.77
638552.99,849129.99,424.67
638503.77,849343.24,425.36
638524.41,849193.83,425.26
638549.15,849033.30,424.34
638488.68,849305.41,426.18
638511.09,849146.06,425.72
638509.58,849123.16,425.20
638470.44,849289.14,425.95
638517.29,849010.96,425.98
638453.05,849311.22,425.98
638509.91,848979.56,423.39
638460.07,849206.36,426.48
638462.14,849167.42,426.74
638497.77,848958.40,505.31
638417.36,849345.67,425.03
638459.35,849096.59,426.31
638474.54,848995.28,485.99
638404.59,849333.27,425.85
638440.98,849129.59,486.15
638468.70,848950.66,492.13
638386.48,849354.56,425.23
638457.48,848970.51,509.32
638385.20,849306.69,426.84
638441.67,848979.92,425.56
638365.62,849357.41,425.59
638439.40,848923.10,416.50
638373.43,849261.42,427.66
638379.82,849204.33,427.26
638415.22,848991.50,418.04
638409.84,848990.06,417.49
638385.73,849129.59,534.81
638332.51,849367.19,426.31
638379.86,849091.67,426.44
638392.88,848989.96,425.36
638344.55,849238.12,454.86
638342.42,849220.08,428.31
638391.54,848933.73,464.57
638304.00,849373.36,427.62
638374.44,848970.01,415.81
638322.64,849227.46,461.02
638323.98,849189.04,429.63
638344.23,849047.11,421.06
638285.14,849349.02,465.81
638348.72,848977.82,415.94
638306.27,849173.00,425.82
638267.49,849359.97,449.18
638314.40,849107.55,511.12
638337.76,848941.27,416.37
638316.14,849032.94,452.46
638297.41,849113.42,459.32
638278.28,849185.93,425.79
638270.64,849212.07,452.33
638269.06,849195.60,427.95
638257.81,849241.57,457.74
638248.36,849265.19,430.51
638241.83,849290.32,472.47
638228.44,849329.72,429.53
638226.67,849331.40,475.00
638221.82,849333.86,459.15
638218.54,849325.75,429.49
638217.85,849311.58,429.53
638214.21,849312.01,429.53
638211.52,849308.43,430.02
638206.92,849314.37,430.31
638198.92,849343.86,459.97
638196.59,849332.41,444.42
638206.79,849259.25,428.41
638227.69,849134.15,418.83
638253.02,848988.91,415.26
638233.76,849059.94,423.69
638205.15,849186.15,425.26
638171.16,849345.18,452.00
638167.52,849338.06,428.94
638183.79,849248.23,469.36
638203.58,849125.43,438.94
638225.89,849016.34,518.93
638229.99,848945.08,415.35
638205.31,849072.90,514.70
638170.70,849206.10,425.13
638160.79,849261.29,526.48
638136.06,849348.46,449.64
638133.23,849338.48,428.77
638156.73,849204.66,425.10
638192.06,849030.61,493.27
638189.44,849022.93,516.60
638147.05,849219.06,543.50
638112.57,849344.16,428.35
638104.36,849369.91,446.85
638107.94,849337.07,450.03
638117.45,849281.92,480.97
638115.91,849266.34,448.33
638119.06,849229.53,424.67
638123.62,849199.21,457.61
638131.04,849147.83,460.53
638132.12,849118.54,418.83
638153.18,849019.88,503.41
638164.53,848935.10,439.76
638151.61,848967.88,422.74
638131.40,849047.28,416.47
638104.56,849160.47,422.57
638092.85,849224.87,538.65
638060.30,849339.07,427.79
638051.87,849359.81,427.43
638058.92,849315.75,459.58
638051.28,849328.61,429.20
638045.08,849346.06,451.87
638036.22,849370.93,450.16
638030.77,849376.61,427.53
638027.33,849375.10,433.17
638034.12,849337.83,476.48
638038.55,849298.20,468.67
638053.87,849227.53,550.10
638052.62,849187.76,413.32
638088.68,849007.74,440.29
638102.66,848923.56,425.26
638085.33,848986.45,415.85
638062.14,849079.72,415.22
638035.07,849194.23,432.05
638029.89,849230.74,560.66
638008.50,849286.02,423.13
637996.85,849325.26,424.57
637986.91,849357.78,428.90
637987.96,849352.69,496.69
637983.89,849344.55,433.86
638002.95,849268.01,555.18
638001.41,849248.49,494.59
637992.52,849260.20,416.04
637996.16,849256.14,543.21
637993.93,849247.21,514.21
637986.45,849248.56,415.19
637992.39,849232.64,538.75
637986.68,849230.68,462.37
637984.09,849219.55,411.98
637973.20,849264.24,452.30
637948.46,849358.20,425.07
637976.51,849217.62,442.75
637977.10,849186.45,412.11
637955.71,849293.77,547.93
637985.20,849112.14,415.78
637923.59,849380.48,426.94
637990.26,849063.16,428.28
637928.41,849319.23,418.60
637928.71,849315.78,488.48
637978.74,849064.67,422.97
637928.31,849281.00,483.20
637915.19,849313.45,416.80
637942.68,849167.26,415.16
637902.26,849349.54,508.10
637990.72,848915.26,412.04
637896.39,849343.93,534.28
637934.15,849148.23,466.57
637896.52,849286.48,421.42
637892.09,849310.30,531.69
637936.38,849071.42,411.98
637867.59,849373.75,484.25
637948.95,848979.13,411.98
637853.94,849386.52,424.80
637896.92,849172.44,412.83
637907.41,849112.11,426.54
637855.02,849336.75,536.55
637931.10,848955.38,413.02
637829.20,849370.77,418.18
637818.24,849392.16,419.62
637865.75,849155.71,412.40
637904.30,848952.23,412.11
637801.12,849379.13,416.50
637851.64,849127.26,412.27
637838.35,849145.77,412.53
637859.68,849010.24,411.88
637858.10,848966.04,411.84
637810.99,849126.87,411.78
637789.47,849171.16,412.93
637778.38,849156.43,412.93
637773.82,849112.83,411.75
637792.49,848968.80,412.01
637778.61,848964.83,412.07
637770.64,848935.76,412.11
637715.68,849094.78,411.68
637660.66,849256.76,413.12
637723.65,848920.31,411.52
637634.91,849206.59,411.48
637650.62,849014.04,411.84
637595.73,849069.06,411.52
637532.12,849130.38,411.35
637523.49,848966.50,411.68
637383.63,849359.78,411.22
637425.79,849036.61,411.22
637401.44,849005.61,411.78
637333.27,849187.66,411.35
637367.65,848961.06,454.10
637337.76,848956.23,422.54
637305.48,848939.90,430.74
637262.76,848995.18,412.11
637247.57,848936.32,430.94
637202.85,849008.30,446.65
637198.00,848938.55,475.72
637208.66,850034.02,489.53
637212.40,849984.32,475.49
637233.30,850021.26,428.31
637245.47,850046.29,464.70
637239.67,849978.51,424.80
637207.22,849791.14,423.56
637231.40,849889.53,470.54
637263.78,850005.64,425.85
637199.84,849690.06,479.36
637252.82,849904.20,427.49
637280.02,850017.52,471.06
637253.81,849874.02,451.21
637222.87,849709.15,431.92
637199.74,849587.30,461.61
637187.07,849495.28,411.35
637209.32,849589.24,452.46
637217.09,849619.19,522.54
637226.15,849633.66,433.30
637227.89,849640.12,535.86
637230.51,849631.04,500.20
637232.48,849613.35,417.62
637228.15,849581.40,443.93
637187.73,849382.48,411.19
637235.10,849591.96,446.39
637271.65,849755.09,507.51
637297.97,849854.95,462.24
637330.12,849989.57,473.29
637331.92,849982.91,462.40
637306.17,849844.75,436.68
637273.39,849682.09,460.43
637251.90,849565.68,449.57
637189.01,849258.30,411.58
637216.40,849374.25,410.99
637278.97,849646.49,421.36
637332.45,849887.80,520.83
637371.00,850034.61,429.86
637350.82,849932.81,465.19
637279.49,849586.55,416.44
637251.02,849448.82,411.35
637346.42,849883.53,540.16
637374.90,849989.73,484.45
637296.78,849625.95,516.99
637210.37,849213.94,411.25
637346.65,849820.51,470.57
637398.59,850033.66,428.28
637308.10,849619.91,482.84
637221.36,849213.75,411.15
637381.59,849917.32,426.94
637384.71,849929.27,503.84
637259.38,849342.85,411.15
637226.12,849186.88,411.48
637366.80,849799.51,427.13
637410.20,849979.76,427.26
637323.43,849591.27,502.66
637180.91,848943.01,452.99
637333.23,849600.56,420.64
637431.20,850023.92,455.64
637363.58,849721.42,508.60
637262.93,849252.62,411.32
637282.61,849330.74,411.32
637386.48,849774.38,426.35
637449.41,850038.25,432.22
637385.76,849745.41,426.80
637297.21,849343.83,411.22
637257.09,849161.75,411.09
637356.73,849586.88,450.56
637436.22,849914.34,426.77
637455.97,849988.98,432.94
637392.32,849699.02,428.02
637318.27,849364.40,411.22
637229.04,848975.72,433.56
637321.88,849359.19,411.45
637375.46,849589.67,508.33
637419.55,849754.00,427.59
637460.53,849915.55,425.75
637491.60,850038.19,437.93
637456.14,849872.05,426.25
637407.97,849653.58,425.10
637381.33,849541.01,521.46
637348.06,849372.38,411.25
637301.38,849163.88,411.32
637262.99,848994.39,412.27
637353.31,849364.01,411.32
637398.92,849557.64,510.20
637449.34,849747.21,428.08
637495.41,849928.81,425.92
637526.44,850046.85,425.92
637505.25,849947.44,425.79
637470.21,849789.27,428.35
637422.38,849577.10,421.49
637384.84,849407.51,411.45
637331.27,849174.44,411.68
637291.70,849002.72,414.30
637385.63,849382.25,411.15
637432.87,849567.52,420.28
637475.00,849731.73,429.00
637528.64,849942.29,426.05
637555.35,850042.22,425.98
637530.87,849929.46,426.38
637493.54,849763.94,428.74
637448.10,849573.59,495.24
637414.21,849412.37,411.09
637333.27,849070.44,411.65
637307.32,848958.27,427.79
637341.99,849088.19,411.58
637387.70,849264.99,411.15
637423.52,849400.75,411.38
637458.53,849534.19,415.55
637485.04,849632.68,426.84
637514.40,849742.91,429.20
637540.03,849836.58,427.79
637560.89,849910.70,426.31
637589.04,850014.80,425.89
637591.57,850014.96,426.08
637562.47,849885.76,427.13
637522.28,849711.09,429.23
637483.27,849540.45,418.11
637430.25,849313.58,411.32
637353.67,848993.34,417.03
637345.93,848958.76,454.66
637414.60,849222.83,411.48
637475.23,849459.32,412.14
637522.18,849642.32,427.72
637578.12,849860.96,427.13
637613.71,849996.62,426.18
637611.61,849981.30,426.31
637561.94,849777.62,489.27
637513.98,849573.43,467.91
637444.00,849277.95,411.29
637360.43,848938.45,438.09
637468.96,849368.44,411.29
637534.74,849630.02,429.20
637608.89,849923.52,426.61
637627.46,849993.57,425.98
637568.11,849747.51,429.33
637489.70,849423.23,411.02
637372.21,848945.14,422.34
637472.51,849345.31,411.45
637540.98,849617.52,428.44
637608.96,849887.27,426.80
637636.19,849993.04,426.12
637578.48,849755.51,429.17
637511.75,849480.02,411.38
637385.17,848966.57,413.25
637459.42,849262.11,411.19
637536.06,849569.29,469.19
637608.53,849854.82,427.56
637657.61,850048.56,426.54
637597.93,849807.97,534.42
637539.14,849563.85,495.96
637458.96,849233.33,412.30
637393.93,848968.70,420.93
637529.36,849507.91,415.03
637583.40,849720.28,429.33
637635.50,849924.18,426.64
637660.07,850017.36,426.25
637626.44,849876.51,426.94
637590.62,849725.92,429.49
637545.18,849537.04,422.41
637496.36,849333.73,411.38
637404.82,848960.50,413.85
637432.48,849066.31,411.71
637477.59,849240.35,411.29
637505.64,849345.90,411.52
637531.10,849440.68,411.29
637556.00,849535.17,527.26
637572.67,849593.54,429.04
637605.74,849718.86,429.40
637632.61,849819.52,428.22
637663.65,849936.52,427.00
637687.27,850024.61,426.41
637687.34,850018.37,426.38
637670.37,849943.24,427.26
637648.10,849846.49,427.49
637620.41,849728.12,429.72
637602.85,849650.26,429.69
637578.77,849545.18,463.19
637570.08,849502.89,454.27
637549.93,849414.80,411.42
637519.52,849285.30,411.09
637478.74,849114.17,411.61
637482.48,849123.72,411.65
637541.17,849350.43,411.42
637586.75,849523.43,466.08
637635.01,849708.86,472.24
637679.40,849879.17,428.05
637718.67,850029.10,426.74
637695.08,849926.57,428.25
637646.00,849718.80,490.72
637600.13,849525.46,459.15
637516.54,849182.71,411.58
637550.43,849312.63,411.32
637620.96,849586.55,430.15
637679.10,849809.48,489.60
637717.59,849956.23,464.60
637717.91,849949.02,478.25
637691.04,849832.74,429.59
637642.65,849628.31,429.56
637586.58,849392.85,411.45
637516.99,849107.61,411.68
637610.86,849476.25,415.88
637677.43,849736.22,429.76
637726.90,849926.64,430.05
637755.58,850033.83,426.80
637737.66,849952.66,442.19
637723.62,849886.91,429.20
637705.09,849800.52,451.35
637671.03,849653.22,429.56
637640.09,849517.32,426.35
637621.78,849432.74,411.35
637595.44,849315.45,411.25
637574.38,849218.96,411.58
637545.77,849091.57,411.84
637568.31,849176.08,411.68
637584.45,849230.68,411.61
637602.76,849294.26,411.42
637629.59,849392.62,411.42
637651.67,849468.27,492.55
637683.83,849593.37,428.77
637714.14,849708.43,429.13
637743.44,849819.29,429.66
637773.46,849934.28,427.26
637799.31,850033.04,426.94
637788.52,849981.17,426.80
637756.04,849839.50,429.59
637728.77,849718.54,429.82
637680.54,849511.35,426.51
637632.61,849305.84,411.35
637600.20,849166.73,411.42
637661.29,849410.37,411.45
637708.63,849595.31,456.82
637755.02,849782.87,429.46
637786.75,849906.36,428.02
637820.77,850041.21,426.48
637784.38,849880.81,428.54
637743.83,849702.66,430.28
637683.63,849441.27,414.90
637622.57,849180.91,411.48
637699.64,849492.78,426.25
637773.95,849792.59,479.23
637833.89,850040.85,425.72
637785.27,849823.85,469.52
637707.32,849487.93,425.98
637621.98,849123.36,411.71
637728.41,849561.38,429.49
637813.25,849912.93,427.33
637807.81,849877.43,466.54
637739.27,849574.28,482.97
637644.69,849167.98,411.65
637703.38,849411.68,411.45
637775.16,849705.28,429.82
637830.51,849932.61,426.90
637841.27,849969.06,426.64
637799.31,849778.58,429.43
637737.63,849492.85,522.54
637665.68,849184.65,411.71
637707.55,849356.69,411.32
637785.07,849677.59,429.23
637851.80,849954.20,426.48
637869.82,850022.38,426.57
637814.57,849772.11,429.66
637755.87,849506.40,429.20
637694.59,849231.96,412.89
637705.87,849273.46,411.32
637795.90,849649.25,429.82
637870.01,849959.65,426.74
637886.88,850022.34,427.92
637851.28,849855.71,428.22
637794.49,849596.56,430.18
637737.40,849337.80,411.58
637703.41,849182.81,412.34
637782.68,849513.58,429.79
637848.88,849787.37,459.51
637901.87,850010.76,425.16
637879.33,849902.40,427.23
637804.04,849561.09,429.53
637748.56,849309.15,411.52
637713.22,849146.62,411.68
637767.06,849370.08,412.63
637799.48,849495.24,445.44
637843.08,849676.80,429.17
637875.59,849806.82,428.48
637903.74,849918.44,427.07
637920.96,849980.41,457.48
637879.46,849789.57,428.61
637825.20,849539.17,429.33
637775.52,849310.17,411.48
637734.35,849122.38,411.75
637799.38,849382.45,517.95
637843.93,849574.21,454.10
637902.82,849818.27,473.52
637941.77,849976.21,487.43
637918.11,849868.50,427.69
637899.18,849771.95,428.58
637877.23,849662.57,429.23
637869.55,849614.93,429.23
637861.42,849566.50,429.43
637858.43,849539.34,429.04
637857.09,849520.37,428.87
637853.18,849489.40,429.49
637857.19,849493.41,429.53
637881.56,849587.43,429.33
637900.13,849646.26,503.87
637925.43,849753.15,428.67
637937.66,849793.18,428.84
637927.72,849735.47,428.64
637907.15,849631.63,429.27
637893.50,849554.79,453.58
637886.88,849514.37,435.43
637868.50,849420.93,429.56
637868.27,849398.16,492.19
637860.04,849345.47,523.59
637849.61,849300.69,411.35
637827.66,849192.29,412.27
637820.64,849148.69,412.66
637796.29,849034.32,411.42
637846.33,849240.29,411.29
637885.76,849385.37,525.79
637908.01,849482.74,430.25
637948.36,849646.39,428.67
637998.10,849851.74,428.41
638041.27,850029.82,426.74
637999.08,849833.79,427.92
637974.97,849715.49,429.10
637965.42,849661.68,429.17
637959.58,849623.72,429.00
637937.27,849513.42,428.84
637923.72,849435.56,481.82
637908.37,849353.58,499.15
637898.62,849305.12,456.73
637879.63,849216.86,411.35
637852.89,849088.58,411.61
637860.53,849113.65,412.17
637882.15,849194.72,411.32
637909.71,849286.71,522.44
637917.29,849304.00,536.84
637933.17,849375.36,427.69
637939.70,849382.25,488.19
637941.93,849386.88,429.30
637946.33,849389.70,455.12
637964.73,849459.45,428.05
637994.42,849575.62,428.02
638067.81,849880.81,427.03
638074.34,849900.13,420.37
637983.43,849491.96,440.81
637932.74,849263.02,427.76
637917.36,849190.78,413.71
637993.80,849506.53,427.26
638110.56,849999.31,425.36
638043.80,849700.89,428.51
637962.63,849324.87,523.85
637921.06,849150.36,443.21
638007.61,849510.53,438.39
638122.18,849995.01,425.07
638069.13,849755.12,427.62
637981.63,849356.63,496.13
637907.94,849043.60,412.01
637991.04,849384.81,438.19
638079.56,849753.31,427.59
638128.44,849954.92,421.39
638041.63,849565.78,440.42
637991.08,849338.98,426.57
637895.60,848920.24,411.84
638001.44,849361.38,434.25
638072.24,849651.41,428.41
638150.82,849975.43,426.67
638126.38,849859.42,424.97
638053.51,849532.81,442.39
637996.16,849260.73,540.29
637961.32,849119.46,434.55
638043.77,849456.59,427.82
638157.74,849930.64,419.19
638108.37,849707.78,428.58
638010.50,849261.32,553.58
638013.02,849281.43,424.21
638130.05,849762.37,438.62
638145.24,849817.22,428.61
638025.52,849297.93,424.84
638025.36,849274.67,529.43
638178.74,849922.24,451.54
638089.07,849536.35,428.15
637978.31,849061.42,424.18
638111.55,849611.19,427.85
638170.73,849845.31,471.36
638035.89,849270.77,422.90
638064.27,849379.17,446.42
638218.18,850017.22,447.24
638071.49,849388.19,446.26
638058.10,849319.32,479.30
638222.38,850007.15,445.05
638080.81,849400.72,428.05
638061.32,849305.84,466.37
638218.47,849962.34,437.37
638114.76,849513.94,428.48
638032.74,849162.14,414.40
638188.39,849802.69,446.16
638144.00,849607.19,427.53
638010.47,849027.00,434.91
638144.16,849580.02,470.31
638201.67,849814.11,475.82
638064.14,849223.13,416.77
638100.52,849368.11,428.58
638254.69,850012.11,442.06
638092.62,849310.33,429.10
638091.40,849294.46,446.33
638261.25,850009.48,426.77
638107.91,849343.50,428.58
638108.86,849336.25,451.54
638256.82,849963.06,427.99
638073.85,849163.39,452.10
638169.19,849567.22,427.49
638224.90,849797.24,428.58
638060.01,849058.89,551.41
638204.23,849688.09,429.43
638215.12,849723.62,443.34
638065.65,849051.18,552.13
638192.13,849606.23,427.72
638233.56,849774.67,437.40
638064.17,849030.91,413.75
638208.10,849643.67,448.13
638212.34,849655.02,429.53
638056.89,848966.96,453.81
638243.67,849771.29,441.60
638166.37,849424.02,443.57
638113.45,849172.34,536.81
638308.60,850029.76,447.64
638120.70,849189.63,478.05
638159.61,849358.79,428.67
638295.73,849949.61,440.75
638106.82,849105.58,415.19
638215.72,849578.74,427.13
638251.71,849730.41,429.17
638079.86,848951.80,432.15
638249.28,849698.92,444.23
638233.37,849618.57,447.11
638091.73,848977.79,427.59
638278.74,849806.30,432.02
638230.18,849578.97,427.33
638117.88,849049.61,529.66
638280.97,849790.19,428.84
638272.93,849742.88,439.99
638122.97,849048.29,433.04
638222.70,849496.59,426.87
638328.12,849971.10,426.97
638179.30,849262.07,530.61
638182.91,849275.98,487.70
638326.08,849936.84,427.36
638255.35,849598.23,438.42
638109.71,848915.75,426.64
638272.05,849660.83,429.36
638305.05,849809.42,417.78
638140.32,849014.07,507.28
638252.62,849544.95,437.20
638332.38,849914.93,438.12
638159.65,849090.78,418.67
638231.20,849421.85,428.02
638340.12,849933.79,435.89
638176.08,849140.65,436.65
638213.42,849314.14,429.20
638359.42,850006.20,443.21
638210.70,849284.15,430.54
638183.01,849146.75,414.17
638358.63,849988.06,427.10
638211.12,849264.24,428.97
638210.33,849253.90,428.54
638364.86,850003.44,426.77
638200.23,849188.19,425.16
638225.95,849306.50,429.33
638366.73,849992.81,437.96
638198.69,849154.82,425.26
638246.19,849382.12,429.53
638326.25,849773.52,427.03
638166.34,848968.50,414.11
638305.51,849642.49,490.52
638272.64,849481.56,426.35
638200.10,849104.95,447.60
638381.07,850005.97,444.09
638201.64,849096.00,420.18
638297.80,849572.83,428.15
638288.25,849507.51,472.51
638236.38,849240.58,445.90
638344.32,849784.51,431.00
638199.31,849023.00,508.17
638390.68,850004.49,427.49
638214.04,849067.95,542.91
638347.57,849767.03,429.59
638249.54,849242.45,482.55
638316.50,849576.87,500.20
638304.69,849520.34,426.80
638258.60,849272.47,430.94
638376.12,849860.96,497.34
638196.78,848930.97,415.58
638377.82,849864.83,424.51
638280.58,849345.18,429.43
638280.54,849336.65,429.63
638396.72,849936.58,427.30
638241.31,849108.33,416.67
638284.42,849322.67,429.92
638417.39,850012.83,445.64
638274.34,849235.43,480.61
638246.49,849065.45,540.03
638357.81,849668.50,417.26
638408.92,849925.39,442.22
638283.96,849235.79,482.84
638222.44,848908.83,414.70
638320.14,849416.96,425.59
638424.54,849962.53,445.51
638387.11,849755.41,417.22
638278.44,849137.37,493.70
638259.06,849038.58,415.45
638336.94,849444.16,423.85
638430.41,849937.57,439.07
638425.59,849902.33,424.57
638328.90,849359.06,427.23
638277.43,849053.74,462.73
638281.20,849064.17,460.86
638342.72,849393.73,425.49
638432.78,849878.71,417.29
638447.51,849945.70,426.64
638356.40,849427.85,423.43
638302.30,849090.12,522.44
638280.87,848980.74,427.00
638339.63,849288.85,428.97
638433.60,849800.66,417.32
638469.36,849984.06,425.72
638402.62,849597.54,417.13
638339.90,849221.88,443.73
638300.46,848989.86,415.62
638302.20,848979.07,442.65
638334.97,849148.13,426.02
638377.20,849365.62,425.03
638416.47,849569.88,417.32
638449.44,849736.88,417.13
638489.57,849944.65,420.24
638501.87,849993.34,426.35
638511.61,850026.74,435.47
638506.10,849974.44,435.76
638487.86,849852.79,417.36
638462.99,849688.65,416.80
638470.57,849712.01,417.26
638460.24,849629.72,417.26
638455.91,849583.86,417.36
638460.40,849588.12,417.32
638476.80,849661.35,417.32
638484.88,849687.40,417.32
638500.66,849757.22,417.32
638508.04,849779.89,417.09
638498.65,849705.84,417.32
638482.48,849592.52,417.26
638493.01,849635.10,417.39
638482.38,849554.43,417.49
638451.77,849356.76,424.57
638440.91,849275.59,426.41
638434.97,849223.82,427.62
638442.39,849250.92,426.97
638441.77,849230.48,427.13
638454.89,849291.47,426.21
638472.08,849377.66,423.59
638488.75,849460.04,417.55
638520.44,849631.00,417.29
638523.95,849636.06,417.09
638523.10,849616.14,417.32
638518.04,849572.21,417.13
638501.90,849461.98,417.42
638487.14,849359.81,424.61
638469.00,849238.85,426.41
638468.54,849221.95,426.38
638469.82,849215.94,426.35
638480.15,849260.99,426.31
638486.32,849283.56,425.75
638496.36,849325.33,438.75
638502.49,849350.10,424.93
638501.28,849329.30,425.52
638490.16,849249.70,426.18
638475.10,849134.74,483.30
638450.59,848991.11,432.32
638438.06,848903.94,416.44
638447.67,848945.90,415.42
638458.30,848971.82,498.98
638462.99,848982.84,502.26
638468.31,849000.66,497.60
638473.85,849034.51,426.35
638483.37,849074.64,425.95
638491.70,849107.12,425.46
638507.05,849178.44,425.75
638526.05,849271.19,424.44
638545.73,849366.44,423.88
638559.97,849432.58,417.39
638584.78,849556.59,417.22
638610.40,849683.86,417.29
638658.30,849937.63,417.16
638625.39,849725.85,416.93
638584.42,849471.19,417.36
638537.40,849182.05,425.13
638495.54,848921.72,434.88
638538.98,849142.06,424.44
638609.19,849518.57,417.16
638656.99,849759.97,417.36
638586.19,849333.92,424.38
638532.28,849007.02,425.72
638519.46,848910.30,417.95
638581.14,849232.87,423.46
638669.26,849705.81,417.13
638610.07,849341.24,423.98
638535.99,848899.70,419.03
638620.34,849347.80,423.59
638732.94,849951.51,417.13
638616.01,849270.70,423.72
638560.66,848935.33,421.62
638633.66,849318.83,423.69
638733.60,849847.08,417.42
638629.43,849240.65,424.21
638586.02,848971.16,423.20
638678.41,849461.09,417.16
638719.59,849657.61,417.36
638634.65,849160.47,425.07
638614.30,849017.85,424.15
638709.15,849517.49,417.52
638732.78,849615.78,417.32
638643.31,849095.57,426.44
638650.26,849103.18,426.08
638745.41,849603.58,417.13
638745.18,849572.47,417.22
638659.48,849076.31,426.05
638659.42,849042.91,445.54
638740.09,849470.05,417.29
638801.77,849782.58,417.26
638722.11,849319.42,423.62
638652.10,848914.27,422.60
638726.51,849295.80,423.82
638831.46,849850.03,417.29
638739.76,849310.27,465.42
638667.19,848888.06,469.65
638739.37,849270.01,423.88
638822.31,849710.33,417.13
638788.45,849495.24,417.32
638752.66,849274.64,423.85
638724.18,849095.60,424.77
638709.35,848991.67,425.00
638698.00,848901.41,423.20
638724.44,849026.02,425.46
638760.17,849201.35,423.62
638798.72,849394.65,420.90
638868.57,849762.11,417.16
638835.56,849543.96,417.26
638779.86,849203.02,424.34
638738.94,848939.27,423.56
638838.39,849470.41,417.42
638773.92,849064.04,425.13
638842.03,849409.91,419.65
638783.43,849034.68,425.56
638862.17,849428.35,419.03
638846.42,849293.47,425.03
638835.47,849172.60,425.33
638874.93,849335.20,424.34
638835.33,849016.21,425.85
638839.96,848915.22,424.74
638882.87,850402.13,422.57
638898.10,850261.38,504.69
638873.79,850323.36,422.15
638898.82,850147.60,423.10
638882.91,850199.25,463.88
638897.18,850076.35,421.88
638888.55,850094.62,441.67
638885.60,850063.71,420.34
638855.02,850184.88,418.77
638863.35,850116.40,464.83
638816.17,850331.04,418.37
638851.71,850108.43,420.05
638807.32,850325.79,450.03
638889.24,849854.49,418.11
638798.79,850323.72,476.21
638844.91,850030.15,417.19
638801.77,850229.92,418.34
638826.02,850069.09,437.80
638807.87,850126.84,418.67
638766.93,850317.59,417.29
638835.50,849915.29,417.36
638783.79,850162.73,418.64
638773.88,850183.17,418.04
638828.31,849846.62,417.29
638734.09,850340.39,416.54
638756.17,850187.27,418.37
638876.67,849495.01,419.16
638745.51,850184.35,417.75
638751.77,850116.27,418.27
638799.21,849816.90,416.86
638691.67,850383.96,416.40
638747.54,850040.22,417.16
638869.36,849341.96,424.05
638755.51,849936.32,417.26
638672.77,850371.42,432.61
638695.73,850208.04,417.95
638750.66,849879.40,417.22
638836.81,849381.46,422.18
638790.75,849605.64,417.13
638728.25,849925.13,417.45
638675.20,850203.61,452.36
638638.71,850365.39,416.83
638687.37,850075.46,418.77
638755.31,849678.58,417.22
638799.18,849412.04,420.14
638714.37,849854.13,417.22
638670.44,850074.05,418.73
638650.36,850164.40,417.95
638639.99,850202.20,418.18
638635.89,850216.21,457.19
638627.72,850230.68,418.34
638620.60,850249.93,417.49
638613.88,850279.56,457.91
638602.92,850309.61,418.01
638587.53,850376.67,446.06
638604.10,850269.88,458.79
638623.82,850141.73,458.01
638644.36,849996.03,417.16
638678.71,849787.70,416.96
638759.35,849332.25,444.36
638686.71,849695.41,418.01
638607.58,850110.66,436.32
638552.10,850381.40,426.54
638605.51,850060.53,419.29
638732.68,849338.58,423.49
638592.68,850083.63,466.96
638537.73,850338.25,428.02
638586.55,850045.64,437.14
638708.92,849342.16,423.36
638601.15,849893.37,417.13
638520.96,850305.84,427.95
638541.99,850151.94,427.03
638625.36,849662.70,416.80
638578.48,849878.77,417.13
638492.36,850322.21,427.10
638527.89,850088.32,428.05
638657.32,849341.47,423.39
638504.69,850148.88,447.80
638472.80,850277.03,426.84
638515.72,850019.62,446.16
638631.30,849348.10,423.36
638507.87,849992.62,440.29
638471.46,850172.77,460.50
638423.29,850397.34,426.61
638455.64,850199.08,457.84
638480.84,850030.09,443.18
638588.32,849405.12,420.08
638513.09,849784.42,417.22
638455.84,850082.97,439.34
638416.34,850276.41,439.24
638413.09,850265.09,444.00
638443.24,850075.75,441.93
638468.14,849905.51,417.32
638564.86,849351.15,423.82
638476.87,849803.67,417.26
638438.85,849994.72,426.54
638412.53,850125.43,444.98
638381.30,850269.03,425.82
638351.80,850410.43,425.23
638386.25,850192.59,426.51
638409.09,850051.80,440.62
638439.60,849852.59,417.29
638525.26,849356.56,424.21
638423.88,849894.98,423.62
638387.04,850087.47,439.63
638347.90,850279.13,425.16
638331.63,850345.54,424.93
638361.84,850165.22,439.80
638376.51,850058.43,425.72
638391.57,849956.66,427.33
638425.95,849742.72,417.32
638500.20,849319.69,447.38
638482.25,849389.40,422.87
638395.77,849853.25,435.17
638372.44,849966.31,440.52
638357.28,850026.67,426.41
638342.06,850098.88,441.63
638333.43,850129.99,446.23
638322.41,850168.44,435.43
638316.70,850185.04,445.24
638307.91,850207.58,425.23
638298.16,850243.54,425.75
638281.76,850316.63,425.43
638263.68,850399.41,424.28
638269.16,850344.06,424.97
638287.73,850220.21,425.79
638310.33,850079.82,443.08
638328.51,849956.30,441.57
638362.50,849734.97,419.55
638423.59,849370.80,423.75
638408.92,849428.15,421.85
638315.45,849936.02,427.26
638282.15,850104.36,426.15
638257.68,850224.80,430.41
638242.16,850291.17,425.10
638217.09,850413.25,425.33
638227.76,850336.84,450.46
638227.56,850308.23,425.69
638236.88,850236.42,427.53
638251.90,850130.87,426.74
638261.81,850058.69,434.45
638252.69,850087.83,426.41
638242.68,850125.98,426.54
638220.70,850231.92,426.05
638200.98,850325.33,426.25
638183.69,850410.63,426.21
638228.90,850136.84,427.17
638290.19,849777.33,438.85
638342.68,849457.35,423.39
638320.08,849591.86,471.56
638239.21,850012.63,427.00
638182.02,850324.54,426.51
638282.78,849746.00,442.59
638348.20,849358.43,426.67
638270.34,849785.93,441.73
638162.66,850375.52,426.35
638282.64,849689.90,439.80
638316.77,849478.81,423.92
638231.43,849942.75,426.61
638175.10,850249.11,426.48
638281.86,849640.16,441.37
638311.06,849477.43,471.95
638216.31,849973.13,427.49
638149.38,850337.83,426.84
638264.86,849681.56,439.60
638296.16,849489.27,425.23
638194.69,850048.29,443.41
638164.93,850205.25,443.31
638251.28,849708.73,444.65
638309.15,849368.34,427.76
638238.06,849754.66,440.81
638146.75,850243.80,427.00
638168.24,850114.47,426.84
638258.92,849603.12,444.03
638284.51,849442.52,425.85
638197.34,849908.53,417.78
638115.72,850357.51,425.79
638220.05,849770.70,442.68
638290.78,849373.95,456.56
638208.73,849802.53,428.51
638097.97,850402.30,425.23
638178.67,849944.23,425.82
638262.73,849465.55,426.35
638241.60,849571.26,427.99
638145.54,850088.91,427.10
638120.67,850227.26,451.64
638233.79,849582.45,442.19
638234.22,849569.95,444.46
638120.18,850179.46,427.33
638145.64,850035.89,443.83
638255.05,849410.04,428.02
638205.48,849681.92,452.89
638085.63,850331.04,452.56
638169.23,849860.56,460.47
638252.56,849371.23,429.36
638185.56,849736.09,447.83
638071.85,850341.70,425.03
638133.69,849987.24,426.31
638235.66,849407.94,428.35
638201.08,849584.68,427.56
638109.28,850076.31,427.10
638053.84,850372.01,425.59
638141.04,849867.42,419.09
638191.27,849573.56,427.40
638228.81,849351.77,429.30
638172.74,849643.27,428.35
638097.21,850044.26,426.02
638027.92,850417.45,424.70
638108.46,849958.30,441.70
638196.19,849446.85,427.99
638169.23,849581.63,427.46
638064.99,850143.44,426.35
638044.52,850261.65,465.88
638131.73,849740.85,429.13
638203.87,849337.70,463.32
638116.96,849790.45,428.64
638014.76,850349.25,438.75
638072.28,850009.61,427.26
638172.93,849433.33,442.72
638140.85,849591.67,428.81
638026.77,850212.27,426.31
638033.73,850161.42,426.31
638144.85,849520.57,428.38
638147.18,849497.97,440.65
638013.16,850227.20,426.57
638017.49,850190.32,426.51
638130.12,849545.51,442.16
638149.64,849415.29,428.28
638067.91,849857.84,433.37
637980.12,850331.66,425.95
638018.34,850103.97,426.90
638113.58,849551.28,428.35
638137.73,849401.12,428.90
638060.96,849817.09,435.33
637953.48,850400.62,425.30
638036.52,849919.78,421.39
638118.01,849447.83,427.03
638104.00,849512.17,428.31
638002.49,850067.45,433.76
637949.51,850363.12,457.02
638062.60,849700.69,428.51
638124.54,849347.41,452.26
638057.81,849696.75,428.48
637940.45,850336.09,425.07
637990.42,850043.73,420.77
638097.83,849439.17,445.14
638084.81,849491.37,428.48
637972.47,850101.90,427.30
637930.38,850324.48,424.57
638024.74,849783.14,427.53
638091.99,849394.00,428.28
638067.22,849522.64,439.04
637951.05,850146.13,427.20
637923.82,850285.76,426.51
638015.98,849759.32,428.58
638075.95,849411.58,427.89
638062.34,849478.12,440.91
637984.94,849881.96,427.95
637893.70,850366.77,424.54
637942.59,850084.68,421.00
638039.90,849541.11,438.52
638076.51,849328.67,447.97
638040.26,849512.20,446.82
637963.45,849908.01,427.66
637877.66,850360.47,425.36
637919.62,850119.85,425.52
638023.13,849541.14,427.13
638063.25,849325.07,463.98
638015.62,849557.87,438.48
637909.15,850114.07,421.56
637878.44,850272.21,425.75
637983.10,849691.37,428.94
638049.90,849321.16,443.31
637977.89,849692.29,429.00
637860.53,850315.26,438.45
637904.49,850058.43,417.32
638007.41,849493.31,427.26
638018.18,849423.13,427.53
637913.88,849967.42,427.26
637838.12,850363.29,425.33
637953.22,849730.94,428.71
638023.88,849349.51,454.30
637929.23,849829.59,428.35
637816.24,850421.88,424.90
637931.82,849788.58,428.77
638018.64,849333.76,488.12
637948.52,849677.49,451.35
637829.63,850282.61,425.85
637873.82,850035.47,424.80
637968.14,849524.97,439.83
637970.93,849491.99,427.40
637834.19,850202.46,433.60
637880.12,849950.03,435.73
637991.11,849349.64,433.50
637900.82,849822.90,458.79
637790.26,850382.35,424.48
637922.38,849674.11,428.67
637962.37,849453.35,428.05
637816.93,850224.70,482.94
637853.35,850019.16,469.95
637973.36,849380.05,469.62
637887.53,849811.68,456.66
637765.42,850421.49,423.00
637888.65,849773.43,428.44
637969.23,849369.46,489.14
637872.05,849843.37,445.41
637755.12,850431.63,423.92
637869.98,849827.62,428.35
637969.26,849333.53,499.48
637880.94,849764.07,463.65
637745.77,850430.22,423.88
637899.74,849652.85,471.62
637945.83,849399.67,450.52
637820.96,850016.54,426.77
637786.06,850216.80,501.97
637918.34,849512.99,447.64
637923.69,849469.98,429.20
637800.98,850091.08,458.27
637775.10,850199.05,417.36
637899.97,849578.64,469.09
637923.98,849434.48,427.40
637817.55,849957.19,426.61
637732.84,850373.06,422.08
637850.92,849785.70,459.12
637927.07,849398.92,463.25
637891.31,849555.45,428.94
637790.26,850045.21,426.77
637729.33,850339.86,428.18
637831.96,849823.36,429.23
637901.90,849477.76,449.80
637929.46,849352.20,500.82
637900.23,849464.76,438.71
637851.61,849689.27,429.27
637803.25,849912.80,427.46
637757.28,850124.61,426.15
637746.65,850168.04,422.83
637781.86,849988.68,426.84
637823.98,849786.15,458.43
637878.05,849508.14,429.10
637916.96,849351.54,537.76
637867.88,849539.30,428.48
637789.01,849903.54,427.95
637711.15,850258.86,419.13
637771.75,849967.78,426.90
637852.59,849581.17,437.04
637894.55,849388.09,473.52
637802.46,849796.39,429.43
637700.66,850259.55,421.56
637763.91,849959.78,427.17
637866.40,849483.46,459.84
637855.28,849518.96,429.13
637718.77,850140.06,426.08
637721.98,850118.93,426.28
637857.32,849488.58,435.86
637834.74,849600.92,486.35
637680.87,850283.37,442.36
637767.19,849892.49,478.22
637878.08,849384.88,502.33
637775.56,849821.39,429.07
637649.31,850387.30,422.31
637815.29,849625.52,429.95
637838.68,849511.29,429.20
637659.12,850311.68,426.51
637752.43,849883.60,430.02
637872.44,849332.71,421.82
637734.71,849948.72,453.02
637677.13,850191.08,425.75
637832.28,849485.53,429.30
637804.17,849600.82,430.48
637639.27,850320.77,425.16
637739.07,849877.95,462.17
637855.02,849373.00,537.63
637757.35,849760.93,429.17
637607.35,850408.86,424.31
637735.20,849834.68,429.20
637833.56,849384.35,420.34
637767.13,849689.07,504.59
637636.25,850224.87,425.46
637700.46,849934.32,428.25
637819.78,849394.85,421.78
637758.43,849653.41,429.00
637626.54,850212.93,425.79
637664.27,850038.81,426.67
